0.186467,1.32427,3.086
0.192381,1.30753,3.047
0.199795,1.30196,3.034
0.207619,1.29938,3.028
0.215909,1.29981,3.029
0.223834,1.29809,3.025
0.233425,1.30582,3.043
0.280435,1.41825,3.305
0.290544,1.42383,3.318
0.301988,1.43542,3.345
0.311904,1.43928,3.354
0.321582,1.44186,3.36
0.331096,1.44358,3.364
0.340733,1.44572,3.369
0.35019,1.44701,3.372
0.359769,1.44873,3.376
0.368824,1.44831,3.375
0.377873,1.44788,3.374
0.386803,1.44702,3.372
0.395956,1.44703,3.372
0.40547,1.44832,3.375
0.414878,1.44918,3.377
0.424673,1.45133,3.382
0.433726,1.45091,3.381
0.442643,1.45006,3.379
0.451416,1.44877,3.376
0.460718,1.44921,3.377
0.469747,1.44879,3.376
0.479339,1.45008,3.379
0.488514,1.45009,3.379
0.497836,1.45053,3.38
0.507014,1.45054,3.38
0.516192,1.45055,3.38
0.525681,1.45142,3.382
0.535182,1.45229,3.384
0.544533,1.45273,3.385
0.553399,1.45188,3.383
0.562255,1.45103,3.381
0.571269,1.45062,3.38
0.580794,1.45149,3.382
0.589806,1.45108,3.381
0.598814,1.45066,3.38
0.607996,1.45068,3.38
0.616997,1.45027,3.379
0.626549,1.45115,3.381
0.635736,1.45117,3.381
0.645114,1.45162,3.382
0.654499,1.45207,3.383
0.663498,1.45166,3.382
0.673088,1.45254,3.384
0.682287,1.45257,3.384
0.692917,1.4556,3.391
0.701516,1.45434,3.388
0.710308,1.4535,3.386
0.718879,1.45225,3.383
0.728725,1.45356,3.386
0.738371,1.45445,3.388
0.747587,1.45449,3.388
0.756805,1.45452,3.388
0.766023,1.45456,3.388
0.775472,1.45502,3.389
0.784464,1.45463,3.388
0.794389,1.45596,3.391
0.803146,1.45514,3.389
0.812614,1.45561,3.39
0.821603,1.45523,3.389
0.831079,1.4557,3.39
0.840313,1.45575,3.39
0.849299,1.45537,3.389
0.859294,1.45671,3.392
0.868283,1.45633,3.391
0.876492,1.45467,3.387
0.885465,1.45429,3.386
0.894435,1.45392,3.385
0.905536,1.45699,3.392
0.91506,1.45748,3.393
0.925136,1.45883,3.396
0.93303,1.45675,3.391
0.941453,1.45553,3.388
0.950424,1.45516,3.387
0.961376,1.45781,3.393
0.971218,1.45875,3.395
0.980784,1.45925,3.396
0.989484,1.45847,3.394
0.999647,1.45984,3.397
1.00953,1.46078,3.399
1.01883,1.46087,3.399
1.02783,1.46053,3.398
1.03744,1.46105,3.399
1.04644,1.46071,3.398
1.05543,1.46037,3.397
1.06443,1.46004,3.396
1.07342,1.45971,3.395
1.08273,1.45982,3.395
1.09333,1.46164,3.399
1.10363,1.46304,3.402
1.11166,1.46143,3.398
1.12,1.46025,3.395
1.12966,1.4608,3.396
1.14101,1.4635,3.402
1.1507,1.46406,3.403
1.15938,1.46332,3.401
1.16667,1.46087,3.395
1.17671,1.46186,3.397
1.18572,1.46157,3.396
1.19754,1.46472,3.403
1.20728,1.46529,3.404
1.21667,1.46544,3.404
1.22534,1.46473,3.402
1.2351,1.46531,3.403
1.2434,1.46418,3.4
1.25096,1.46218,3.395
1.26035,1.46235,3.395
1.27273,1.46596,3.403
1.28517,1.46958,3.411
1.29272,1.4676,3.406
1.30178,1.46735,3.405
1.31161,1.46796,3.406
1.32301,1.47031,3.411
1.33053,1.46834,3.406
1.33842,1.46681,3.402
1.34828,1.46744,3.403
1.35974,1.4698,3.408
1.37044,1.47131,3.411
1.38197,1.47368,3.416
1.38905,1.47131,3.41
1.39652,1.46937,3.405
1.4052,1.46873,3.403
1.41887,1.47328,3.413
1.43009,1.47525,3.417
1.43713,1.4729,3.411
1.44542,1.47185,3.408
1.45241,1.46951,3.402
1.46196,1.46976,3.402
1.47065,1.46916,3.4
1.48152,1.47072,3.403
1.49066,1.47056,3.402
1.50024,1.47084,3.402
1.50673,1.46809,3.395
1.51318,1.46535,3.388
1.51781,1.46088,3.377
1.52148,1.45556,3.364
1.52054,1.4459,3.341
1.52268,1.43928,3.325
1.52243,1.4305,3.304
-2.32169,1.46049,3.271
-2.34443,1.48072,3.319
-2.33667,1.48178,3.324
-2.2878,1.46857,3.302
-2.26572,1.46036,3.286
-2.25067,1.46267,3.296
-2.22146,1.45572,3.285
-2.24161,1.47509,3.331
-2.21731,1.46523,3.311
-2.20783,1.46513,3.313
-2.18777,1.45798,3.299
-2.17377,1.45482,3.294
-2.16378,1.45433,3.295
-2.16885,1.464,3.319
-2.15169,1.45868,3.309
-2.14044,1.45735,3.308
-2.12667,1.45427,3.303
-2.11807,1.45473,3.306
-2.10312,1.4508,3.299
-2.09205,1.44952,3.298
-2.0829,1.44958,3.3
-2.0675,1.44526,3.292
-2.05592,1.44359,3.29
-2.04314,1.44106,3.286
-2.02855,1.43722,3.279
-2.01896,1.43691,3.28
-2.01858,1.44317,3.296
-2.01508,1.44726,3.307
-2.00729,1.44828,3.311
-1.99709,1.44757,3.311
-1.98631,1.44643,3.31
-1.98631,1.45317,3.327
-1.9791,1.45467,3.332
-1.95948,1.44702,3.316
-1.94174,1.44069,3.303
-1.93346,1.44136,3.306
-1.92693,1.44334,3.312
-1.91634,1.44228,3.311
-1.90462,1.44036,3.308
-1.8958,1.44062,3.31
-1.88414,1.43872,3.307
-1.87706,1.44031,3.312
-1.86996,1.44191,3.317
-1.85613,1.4383,3.31
-1.8457,1.43731,3.309
-1.83863,1.43894,3.314
-1.82934,1.43883,3.315
-1.81731,1.43657,3.311
-1.80315,1.43258,3.303
-1.79502,1.43337,3.306
-1.78473,1.43244,3.305
-1.77822,1.43454,3.311
-1.77116,1.43622,3.316
-1.76409,1.43791,3.321
-1.75278,1.43614,3.318
-1.7373,1.43092,3.307
-1.72607,1.42917,3.304
-1.7154,1.42786,3.302
-1.70734,1.42872,3.305
-1.69671,1.42743,3.303
-1.69121,1.43046,3.311
-1.68365,1.43177,3.315
-1.67456,1.4318,3.316
-1.66298,1.42967,3.312
-1.65392,1.42971,3.313
-1.64388,1.42889,3.312
-1.63435,1.42851,3.312
-1.62434,1.4277,3.311
-1.61532,1.42777,3.312
-1.60534,1.42698,3.311
-1.59683,1.42748,3.313
-1.5864,1.42627,3.311
-1.57885,1.42766,3.315
-1.57129,1.42904,3.319
-1.56136,1.42828,3.318
-1.54911,1.42538,3.312
-1.53737,1.42291,3.307
-1.53075,1.42518,3.313
-1.52273,1.42617,3.316
-1.51425,1.42673,3.318
-1.50531,1.42686,3.319
-1.49638,1.427,3.32
-1.4861,1.42586,3.318
-1.47585,1.42472,3.316
-1.46694,1.42488,3.317
-1.45892,1.4259,3.32
-1.45176,1.42779,3.325
-1.44241,1.42753,3.325
-1.43522,1.42943,3.33
-1.42588,1.42918,3.33
-1.41612,1.42851,3.329
-1.40214,1.42355,3.318
-1.39243,1.42289,3.317
-1.38482,1.42438,3.321
-1.37885,1.42758,3.329
-1.37038,1.42822,3.331
-1.36026,1.42715,3.329
-1.35017,1.42608,3.327
-1.34009,1.42502,3.325
-1.33083,1.42482,3.325
-1.32198,1.42505,3.326
-1.3147,1.427,3.331
-1.30584,1.42724,3.332
-1.29737,1.42791,3.334
-1.28541,1.42473,3.327
-1.27541,1.4237,3.325
-1.26582,1.4231,3.324
-1.25699,1.42336,3.325
-1.24703,1.42233,3.323
-1.23709,1.42132,3.321
-1.22828,1.42159,3.322
-1.2191,1.42143,3.322
-1.21101,1.42256,3.325
-1.0273,1.22508,2.864
-1.01655,1.22154,2.856
-1.01045,1.22356,2.861
-1.00256,1.22344,2.861
-0.996771,1.22589,2.867
-0.991293,1.22878,2.874
-0.988518,1.23508,2.889
-0.987361,1.24353,2.909
-0.98677,1.25283,2.931
-0.990069,1.26726,2.965
-0.990866,1.27869,2.992
-0.99119,1.28971,3.018
-0.98942,1.29816,3.038
-0.985929,1.30447,3.053
-0.979477,1.30694,3.059
-0.971483,1.33017,3.114
-0.986147,1.36212,3.189
-0.913207,1.3568,3.178
-0.883232,1.3774,3.227
-0.844609,1.35759,3.181
-0.836626,1.37285,3.217
-0.835062,1.38475,3.245
-0.823927,1.38086,3.236
-0.81053,1.38803,3.253
-0.801423,1.38756,3.252
-0.78829,1.39558,3.271
-0.750868,1.37584,3.225
-0.727176,1.36425,3.198
-0.697133,1.3237,3.103
-0.67963,1.37346,3.22
-0.660458,1.35211,3.17
-0.657597,1.36403,3.198
-0.654788,1.37638,3.227
-0.625793,1.35159,3.169
-0.612311,1.34091,3.144
-0.60396,1.34132,3.145
-0.601851,1.3558,3.179
-0.594519,1.35877,3.186
-0.590828,1.37027,3.213
-0.576845,1.35789,3.184
-0.56195,1.34294,3.149
-0.553396,1.34293,3.149
-0.54588,1.34548,3.155
-0.535948,1.34205,3.147
-0.527233,1.34161,3.146
-0.526603,1.36207,3.194
-0.521659,1.37187,3.217
-0.499015,1.35778,3.184
-0.486365,1.34668,3.158
-0.467135,1.3407,3.144
-0.463266,1.35433,3.176
-0.455359,1.35646,3.181
-0.409967,1.32147,3.099
-0.406996,1.33938,3.141
-0.395552,1.32957,3.118
-0.386218,1.32658,3.111
-0.383966,1.34832,3.162
-0.349744,1.34874,3.163
-0.339972,1.34404,3.152
-0.332678,1.34916,3.164
-0.316299,1.35257,3.172
-0.308369,1.35555,3.179
-0.310112,1.40246,3.289
-0.282985,1.40075,3.285
-0.273735,1.39904,3.281
-0.262812,1.38838,3.256
-0.255847,1.39862,3.28
-0.243405,1.37858,3.233
-0.23463,1.37858,3.233
-0.226554,1.38284,3.243
-0.217819,1.38327,3.244
-0.209143,1.38412,3.246
-0.199592,1.379,3.234
-0.191286,1.38242,3.242
-0.184006,1.39393,3.269
-0.176634,1.40587,3.297
-0.16738,1.40331,3.291
-0.157822,1.39777,3.278
-0.148833,1.39692,3.276
-0.139472,1.39223,3.265
-0.13053,1.39137,3.263
-0.122009,1.39521,3.272
-0.113508,1.3999,3.283
-0.10498,1.40502,3.295
-0.0960073,1.4046,3.294
-0.0869873,1.40332,3.291
-0.0780785,1.40374,3.292
-0.0689962,1.40076,3.285
-0.0599519,1.39777,3.278
-0.051148,1.40033,3.284
-0.0424145,1.4063,3.298
-0.0334325,1.40502,3.295
-0.0244073,1.40033,3.284
-0.0154889,1.39991,3.283
-0.00658407,1.40119,3.286
0.0023378,1.40289,3.29
0.0112643,1.40247,3.289
0.0202098,1.40375,3.292
0.0292337,1.40801,3.302
0.0383118,1.41227,3.312
0.0470729,1.40545,3.296
0.0559851,1.4046,3.294
0.0650046,1.4063,3.298
0.0741804,1.41057,3.308
0.0825307,1.39991,3.283
0.0910794,1.39436,3.27
0.0997716,1.3918,3.264
0.108231,1.38669,3.252
0.116878,1.38455,3.247
0.125382,1.38114,3.239
0.13438,1.38327,3.244
0.142964,1.38114,3.239
0.154192,1.40331,3.291
0.163422,1.40587,3.297
0.168606,1.37517,3.225
0.17549,1.36067,3.191
0.181785,1.34319,3.15
0.187192,1.32101,3.098
0.193139,1.30438,3.059
0.200717,1.29969,3.048
0.208921,1.29926,3.047
0.21712,1.29884,3.046
0.22524,1.29798,3.044
0.234346,1.30267,3.055
0.282216,1.41823,3.326
0.293346,1.42847,3.35
0.303612,1.43401,3.363
0.312647,1.43358,3.362
0.321773,1.43358,3.362
0.331095,1.43444,3.364
0.340428,1.43529,3.366
0.350188,1.43785,3.372
0.35966,1.43913,3.375
0.36893,1.43956,3.376
0.377982,1.43914,3.375
0.387029,1.43871,3.374
0.395953,1.43786,3.372
0.405226,1.43829,3.373
0.414751,1.43957,3.376
0.424543,1.44171,3.381
0.433465,1.44086,3.379
0.442376,1.44001,3.377
0.451544,1.44002,3.377
0.460712,1.44002,3.377
0.469601,1.43918,3.375
0.479048,1.44004,3.377
0.488217,1.44004,3.377
0.497828,1.44133,3.38
0.506705,1.44049,3.378
0.51603,1.44092,3.379
0.525671,1.44221,3.382
0.53533,1.4435,3.385
0.544361,1.44308,3.384
0.552733,1.44096,3.379
0.561743,1.44055,3.378
0.570918,1.44056,3.378
0.580264,1.441,3.379
0.589617,1.44144,3.38
0.598621,1.44103,3.379
0.60798,1.44147,3.38
0.617162,1.44148,3.38
0.626716,1.44235,3.382
0.636093,1.4428,3.383
0.645476,1.44324,3.384
0.654865,1.44369,3.385
0.663672,1.44286,3.383
0.673264,1.44373,3.385
0.682464,1.44375,3.385
0.692688,1.44591,3.39
0.701489,1.44508,3.388
0.710281,1.44426,3.386
0.719063,1.44343,3.384
0.72848,1.44388,3.385
0.737904,1.44434,3.386
0.746893,1.44394,3.385
0.756324,1.4444,3.386
0.765762,1.44486,3.387
0.775206,1.44532,3.388
0.784657,1.44579,3.389
0.793647,1.4454,3.388
0.802632,1.44501,3.387
0.811613,1.44462,3.386
0.821317,1.44552,3.388
0.830053,1.44471,3.386
0.840514,1.44689,3.391
0.84925,1.44608,3.389
0.859244,1.44741,3.392
0.867719,1.44618,3.389
0.876438,1.44538,3.387
0.885409,1.445,3.386
0.89517,1.44591,3.388
0.905744,1.4481,3.393
0.915269,1.44859,3.394
0.923711,1.44737,3.391
0.932414,1.44658,3.389
0.941109,1.44579,3.387
0.950917,1.44671,3.389
0.961304,1.44849,3.393
0.971716,1.45026,3.397
0.980997,1.45034,3.397
0.990281,1.45041,3.397
1.00015,1.45135,3.399
1.01034,1.45271,3.402
1.01875,1.45151,3.399
1.02744,1.45074,3.397
1.03704,1.45125,3.398
1.04696,1.4522,3.4
1.05534,1.45101,3.397
1.0637,1.44982,3.394
1.07111,1.44735,3.388
1.08135,1.44874,3.391
1.09129,1.44969,3.393
1.10255,1.45236,3.399
1.10959,1.44948,3.392
1.11857,1.44916,3.391
1.12788,1.44928,3.391
1.13988,1.45281,3.399
1.14956,1.45336,3.4
1.15925,1.45391,3.401
1.16792,1.45318,3.399
1.17693,1.45288,3.398
1.18593,1.45259,3.397
1.19635,1.454,3.4
1.20572,1.45414,3.4
1.21545,1.45471,3.401
1.22447,1.45443,3.4
1.23495,1.45586,3.403
1.24398,1.45559,3.402
1.25264,1.45489,3.4
1.26278,1.45591,3.402
1.27369,1.45778,3.406
1.28387,1.4588,3.408
1.29179,1.45726,3.404
1.29893,1.45487,3.398
1.30912,1.4559,3.4
1.31972,1.45737,3.403
1.32994,1.45842,3.405
1.33783,1.45689,3.401
1.34808,1.45795,3.403
1.35834,1.459,3.405
1.36942,1.46092,3.409
1.38013,1.46242,3.412
1.38802,1.46091,3.408
1.39588,1.45942,3.404
1.4058,1.46007,3.405
1.41905,1.46415,3.414
1.42986,1.46567,3.417
1.43689,1.46334,3.411
1.4439,1.461,3.405
1.45131,1.4591,3.4
1.46128,1.45978,3.401
1.47039,1.45961,3.4
1.47995,1.45987,3.4
1.48995,1.46056,3.401
1.50129,1.46255,3.405
1.50778,1.45982,3.398
1.51245,1.45538,3.387
1.51483,1.44879,3.371
1.51576,1.44091,3.352
1.51842,1.43476,3.337
1.52054,1.42817,3.321
1.52351,1.42245,3.307
-2.31708,1.42548,3.204
-2.38232,1.47726,3.326
-2.30725,1.44796,3.268
-2.33481,1.47117,3.323
-2.28247,1.4499,3.28
-2.27285,1.44969,3.282
-2.29221,1.46803,3.326
-2.29485,1.47578,3.346
-2.2469,1.45092,3.292
-2.22583,1.44329,3.277
-2.20967,1.44481,3.285
-2.2103,1.4513,3.302
-2.20087,1.45121,3.304
-2.15965,1.43617,3.274
-2.16877,1.4484,3.304
-2.13659,1.43304,3.271
-2.15859,1.45405,3.321
-2.11175,1.42866,3.265
-2.12065,1.44093,3.295
-2.11851,1.44576,3.308
-2.10611,1.44361,3.305
-2.0963,1.44322,3.306
-2.08777,1.44372,3.309
-2.07173,1.439,3.3
-2.05701,1.43517,3.293
-2.03615,1.42699,3.276
-2.02409,1.42493,3.273
-2.01761,1.4268,3.279
-2.01785,1.43347,3.296
-2.02044,1.44187,3.317
-2.00839,1.43986,3.314
-2.00121,1.44133,3.319
-1.98922,1.43933,3.316
-1.98563,1.44342,3.327
-1.97606,1.44319,3.328
-1.96355,1.44079,3.324
-1.94227,1.43191,3.305
-1.9375,1.43517,3.314
-1.92921,1.43585,3.317
-1.91746,1.43393,3.314
-1.90746,1.43333,3.314
-1.89692,1.4323,3.313
-1.88811,1.43258,3.315
-1.87875,1.43243,3.316
-1.87052,1.43316,3.319
-1.85445,1.42786,3.308
-1.84181,1.42515,3.303
-1.8331,1.42548,3.305
-1.82605,1.42711,3.31
-1.81679,1.42702,3.311
-1.80536,1.42521,3.308
-1.79669,1.42557,3.31
-1.78585,1.42422,3.308
-1.7772,1.42459,3.31
-1.76748,1.42411,3.31
-1.75884,1.4245,3.312
-1.74968,1.42447,3.313
-1.73684,1.42144,3.307
-1.7272,1.42099,3.307
-1.71601,1.41927,3.304
-1.70743,1.4197,3.306
-1.69629,1.41799,3.303
-1.68927,1.41972,3.308
-1.68324,1.42231,3.315
-1.67366,1.42191,3.315
-1.66158,1.41937,3.31
-1.65104,1.41813,3.308
-1.6425,1.41861,3.31
-1.63447,1.41952,3.313
-1.6225,1.41701,3.308
-1.61447,1.41793,3.311
-1.60548,1.41801,3.312
-1.59986,1.42108,3.32
-1.58702,1.41775,3.313
-1.57947,1.41912,3.317
-1.56954,1.41837,3.316
-1.56057,1.41847,3.317
-1.54973,1.41687,3.314
-1.53845,1.41485,3.31
-1.53183,1.41711,3.316
-1.52243,1.41681,3.316
-1.51304,1.41652,3.316
-1.50457,1.41708,3.318
-1.49519,1.4168,3.318
-1.48851,1.41908,3.324
-1.47647,1.41625,3.318
-1.46623,1.41513,3.316
-1.45646,1.41444,3.315
-1.44844,1.41546,3.318
-1.44042,1.41649,3.321
-1.43239,1.41752,3.324
-1.42392,1.41813,3.326
-1.41418,1.41747,3.325
-1.40106,1.4134,3.316
-1.39052,1.4119,3.313
-1.38168,1.4121,3.314
-1.37615,1.41571,3.323
-1.36934,1.41806,3.329
-1.36046,1.41827,3.33
-1.34915,1.41594,3.325
-1.33828,1.41403,3.321
-1.32944,1.41426,3.322
-1.32179,1.41577,3.326
-1.31373,1.41686,3.329
-1.3033,1.4154,3.326
-1.29368,1.41479,3.325
-1.2833,1.41334,3.322
-1.27447,1.41359,3.323
-1.26565,1.41385,3.324
-1.25644,1.41368,3.324
-1.24687,1.4131,3.323
-1.23731,1.41251,3.322
-1.22923,1.41364,3.325
-1.22225,1.41604,3.331
-1.21269,1.41546,3.33
-1.0264,1.22552,2.884
-1.01845,1.2254,2.884
-1.01016,1.22486,2.883
-1.00396,1.22688,2.888
-0.995669,1.22635,2.887
-0.990807,1.23006,2.896
-0.986578,1.23463,2.907
-0.985995,1.24387,2.929
-0.988967,1.25779,2.962
-0.993416,1.27383,3
-0.994048,1.28519,3.027
-0.991279,1.29232,3.044
-0.987773,1.29859,3.059
-0.985149,1.30614,3.077
-0.992269,1.32685,3.126
-0.979613,1.32124,3.113
-0.982004,1.33601,3.148
-0.963181,1.32192,3.115
-0.978559,1.35494,3.193
-0.979198,1.39289,3.283
-0.929073,1.35874,3.203
-0.915439,1.35146,3.186
-0.901899,1.34418,3.169
-0.883995,1.36981,3.23
-0.876809,1.3723,3.236
-0.876299,1.38539,3.267
-0.852788,1.36202,3.212
-0.834308,1.34628,3.175
-0.827734,1.34962,3.183
-0.825236,1.35975,3.207
-0.818789,1.36352,3.216
-0.798527,1.35877,3.205
-0.793988,1.36593,3.222
-0.782047,1.36038,3.209
-0.783431,1.37815,3.251
-0.762431,1.35649,3.2
-0.75113,1.35179,3.189
-0.755257,1.37507,3.244
-0.745509,1.37334,3.24
-0.723734,1.34915,3.183
-0.716873,1.35251,3.191
-0.705653,1.36432,3.219
-0.677244,1.34266,3.168
-0.653768,1.32989,3.138
-0.654079,1.3481,3.181
-0.656187,1.37054,3.234
-0.645395,1.36628,3.224
-0.63071,1.35354,3.194
-0.620278,1.34971,3.185
-0.619304,1.36664,3.225
-0.603916,1.3518,3.19
-0.600288,1.36322,3.217
-0.593939,1.36872,3.23
-0.578461,1.35302,3.193
-0.565862,1.34369,3.171
-0.554086,1.33605,3.153
-0.548636,1.34366,3.171
-0.539513,1.34238,3.168
-0.534932,1.35254,3.192
-0.535826,1.3771,3.25
-0.529108,1.3826,3.263
-0.519929,1.38175,3.261
-0.508723,1.37538,3.246
-0.495751,1.36393,3.219
-0.467198,1.35714,3.203
-0.421472,1.34991,3.186
-0.404809,1.35202,3.191
-0.396519,1.35329,3.194
-0.356487,1.36599,3.224
-0.326752,1.35158,3.19
-0.32298,1.37234,3.239
-0.320396,1.39946,3.303
-0.315014,1.41556,3.341
-0.307228,1.42149,3.355
-0.294478,1.40412,3.314
-0.283933,1.39649,3.296
-0.273735,1.39014,3.281
-0.265072,1.39141,3.284
-0.257797,1.40031,3.305
-0.246342,1.38633,3.272
-0.237026,1.38379,3.266
-0.228441,1.38548,3.27
-0.219431,1.38463,3.268
-0.210046,1.38125,3.26
-0.200518,1.37659,3.249
-0.192172,1.37998,3.257
-0.184908,1.39184,3.285
-0.176474,1.39566,3.294
-0.167482,1.39523,3.293
-0.158208,1.39227,3.286
-0.149334,1.39269,3.287
-0.140028,1.38888,3.278
-0.130491,1.3821,3.262
-0.122345,1.39015,3.281
-0.113959,1.39651,3.296
-0.105331,1.40075,3.306
-0.0963286,1.40033,3.305
-0.0870937,1.39609,3.295
-0.0778181,1.39016,3.281
-0.0688077,1.38804,3.276
-0.0598792,1.38719,3.274
-0.051164,1.39185,3.285
-0.0424405,1.39821,3.3
-0.0335443,1.40075,3.306
-0.0244892,1.39609,3.295
-0.0155127,1.39313,3.288
-0.00658813,1.39313,3.288
0.00234279,1.39694,3.297
0.0113089,1.39906,3.302
0.0203389,1.40372,3.313
0.0292782,1.40118,3.307
0.0382543,1.40118,3.307
0.0471732,1.39948,3.303
0.0561384,1.39948,3.303
0.0653599,1.40499,3.316
0.0744052,1.40583,3.318
0.0835117,1.40753,3.322
0.0918878,1.39778,3.299
0.10017,1.38846,3.277
0.109064,1.38846,3.277
0.117671,1.38507,3.269
0.125963,1.37871,3.254
0.134878,1.37956,3.256
0.144422,1.38634,3.272
0.155598,1.4071,3.321
0.163621,1.39862,3.301
0.16981,1.37617,3.248
0.176206,1.35752,3.204
0.182709,1.34142,3.166
0.187616,1.31557,3.105
0.19396,1.30159,3.072
0.201837,1.29863,3.065
0.210293,1.29947,3.067
0.218618,1.29947,3.067
0.227016,1.29989,3.068
0.236878,1.30837,3.088
0.273928,1.41302,3.335
0.284338,1.4198,3.351
0.294396,1.42446,3.362
0.303883,1.42615,3.366
0.313019,1.42615,3.366
0.322155,1.42615,3.366
0.331389,1.42658,3.367
0.340326,1.42573,3.365
0.349771,1.427,3.368
0.359233,1.42827,3.371
0.36871,1.42954,3.374
0.37798,1.42997,3.375
0.387027,1.42955,3.374
0.396303,1.42997,3.375
0.405464,1.42997,3.375
0.414871,1.43082,3.377
0.424163,1.43125,3.378
0.43282,1.42956,3.374
0.441979,1.42956,3.374
0.451004,1.42914,3.373
0.460707,1.43084,3.377
0.469596,1.43,3.375
0.479042,1.43085,3.377
0.488355,1.43128,3.378
0.497673,1.43171,3.379
0.506697,1.43129,3.378
0.515869,1.4313,3.378
0.525352,1.43216,3.38
0.534688,1.43259,3.381
0.543868,1.4326,3.381
0.552722,1.43176,3.379
0.561898,1.43177,3.379
0.570737,1.43093,3.377
0.579908,1.43095,3.377
0.589254,1.43138,3.378
0.598784,1.43224,3.38
0.607965,1.43226,3.38
0.616233,1.43015,3.375
0.625402,1.43017,3.375
0.635135,1.43146,3.378
0.645076,1.43317,3.382
0.654265,1.43319,3.382
0.663651,1.43363,3.383
0.673044,1.43407,3.384
0.682442,1.43452,3.385
0.692051,1.43539,3.387
0.700844,1.43456,3.385
0.709626,1.43374,3.383
0.718611,1.43334,3.382
0.728022,1.43379,3.383
0.737221,1.43382,3.383
0.7462,1.43342,3.382
0.755399,1.43345,3.382
0.765503,1.43518,3.386
0.775172,1.43606,3.388
0.784159,1.43567,3.387
0.793141,1.43528,3.386
0.802119,1.4349,3.385
0.811333,1.43493,3.385
0.820548,1.43497,3.385
0.829274,1.43417,3.383
0.83923,1.43548,3.386
0.848202,1.4351,3.385
0.858436,1.43684,3.389
0.867157,1.43604,3.387
0.875869,1.43524,3.385
0.88431,1.43402,3.382
0.894058,1.43492,3.384
0.904886,1.43752,3.39
0.914671,1.43843,3.392
0.923106,1.43721,3.389
0.931251,1.43558,3.385
0.940488,1.43564,3.385
0.950289,1.43655,3.387
0.960386,1.43789,3.39
0.969643,1.43796,3.39
0.978614,1.43761,3.389
0.988456,1.43853,3.391
0.998312,1.43945,3.393
1.00848,1.4408,3.396
1.01687,1.43961,3.393
1.02615,1.43969,3.393
1.03543,1.43977,3.393
1.04687,1.44283,3.4
1.05556,1.44207,3.398
1.06392,1.44089,3.395
1.07133,1.43844,3.389
1.08125,1.43938,3.391
1.09087,1.43991,3.392
1.10115,1.44128,3.395
1.10784,1.43799,3.387
1.11747,1.43852,3.388
1.12644,1.43821,3.387
1.13775,1.44087,3.393
1.14674,1.44056,3.392
1.15674,1.44153,3.394
1.16711,1.44292,3.397
1.17714,1.4439,3.399
1.1872,1.44488,3.401
1.19551,1.44374,3.398
1.20345,1.44217,3.394
1.21173,1.44104,3.391
1.22217,1.44245,3.394
1.23298,1.4443,3.398
1.24273,1.44487,3.399
1.25322,1.4463,3.402
1.26299,1.44688,3.403
1.27203,1.44661,3.402
1.28144,1.44678,3.402
1.29086,1.44694,3.402
1.29952,1.44627,3.4
1.30971,1.44729,3.402
1.31876,1.44704,3.401
1.32898,1.44808,3.403
1.33685,1.44656,3.399
1.34709,1.4476,3.401
1.35734,1.44865,3.403
1.36761,1.4497,3.405
1.37831,1.45118,3.408
1.38658,1.45011,3.405
1.39567,1.4499,3.404
1.40516,1.45012,3.404
1.41675,1.45247,3.409
1.42753,1.45398,3.412
1.43539,1.4525,3.408
1.44196,1.44976,3.401
1.45106,1.44957,3.4
1.46017,1.44939,3.399
1.46841,1.44836,3.396
1.47621,1.44691,3.392
1.4853,1.44674,3.391
1.49705,1.44914,3.396
1.5044,1.44728,3.391
1.50949,1.44328,3.381
1.50915,1.43417,3.359
1.51366,1.42976,3.348
1.51676,1.42407,3.334
1.51933,1.41795,3.319
1.52275,1.41269,3.306
-2.3754,1.46937,3.334
-2.33566,1.45057,3.294
-2.30752,1.43885,3.27
-2.30487,1.443,3.282
-2.32315,1.46034,3.324
-2.29737,1.45002,3.303
-2.28839,1.45025,3.306
-2.28149,1.45181,3.312
-2.26089,1.44462,3.298
-2.23564,1.4344,3.277
-2.21736,1.42858,3.266
-2.2127,1.43152,3.275
-2.20936,1.43535,3.286
-2.19127,1.42959,3.275
-2.20458,1.44435,3.311
-2.17396,1.43033,3.281
-2.16928,1.43333,3.29
-2.15671,1.43112,3.287
-2.14811,1.43154,3.29
-2.11483,1.41544,3.255
-2.12383,1.42763,3.285
-2.12109,1.43199,3.297
-2.11639,1.43506,3.306
-2.1072,1.4351,3.308
-2.10119,1.43733,3.315
-2.09454,1.43913,3.321
-2.07847,1.43444,3.312
-2.05999,1.42804,3.299
-2.04037,1.42079,3.284
-2.03015,1.42004,3.284
-2.02303,1.42147,3.289
-2.01712,1.42377,3.296
-2.01486,1.42868,3.309
-2.00951,1.43143,3.317
-1.99991,1.43117,3.318
-1.99094,1.43135,3.32
-1.98317,1.4324,3.324
-1.97421,1.4326,3.326
-1.96349,1.43152,3.325
-1.95397,1.43131,3.326
-1.93922,1.42724,3.318
-1.92918,1.42662,3.318
-1.91974,1.42645,3.319
-1.90859,1.42499,3.317
-1.8992,1.42483,3.318
-1.88754,1.42297,3.315
-1.87818,1.42283,3.316
-1.86546,1.42013,3.311
-1.85222,1.41701,3.305
-1.84071,1.41518,3.302
-1.83146,1.41508,3.303
-1.82442,1.4167,3.308
-1.81463,1.41619,3.308
-1.80159,1.41312,3.302
-1.79402,1.41434,3.306
-1.78429,1.41385,3.306
-1.77565,1.41423,3.308
-1.76541,1.41333,3.307
-1.75466,1.41202,3.305
-1.74869,1.41455,3.312
-1.73902,1.41411,3.312
-1.72937,1.41367,3.312
-1.71661,1.41068,3.306
-1.70752,1.41068,3.307
-1.69896,1.41112,3.309
-1.69192,1.41284,3.314
-1.68335,1.41329,3.316
-1.67276,1.41204,3.314
-1.66069,1.40953,3.309
-1.64966,1.40787,3.306
-1.64015,1.40749,3.306
-1.63114,1.40755,3.307
-1.62067,1.40634,3.305
-1.61266,1.40726,3.308
-1.60561,1.40904,3.313
-1.59855,1.41083,3.318
-1.59051,1.41177,3.321
-1.57961,1.41016,3.318
-1.56921,1.40899,3.316
-1.55884,1.40782,3.314
-1.55082,1.40879,3.317
-1.54094,1.40806,3.316
-1.53153,1.40776,3.316
-1.52122,1.40661,3.314
-1.51367,1.40802,3.318
-1.50519,1.40859,3.32
-1.49717,1.40958,3.323
-1.48779,1.40931,3.323
-1.47798,1.40862,3.322
-1.46686,1.40666,3.318
-1.45752,1.4064,3.318
-1.44819,1.40615,3.318
-1.44018,1.40718,3.321
-1.43086,1.40693,3.321
-1.42197,1.40712,3.322
-1.41224,1.40646,3.321
-1.40168,1.40497,3.318
-1.39198,1.40432,3.317
-1.38313,1.40452,3.318
-1.37593,1.40643,3.323
-1.3679,1.40749,3.326
-1.35985,1.40855,3.329
-1.34895,1.40666,3.325
-1.33768,1.40435,3.32
-1.32884,1.40458,3.321
-1.3212,1.40608,3.325
-1.31275,1.40674,3.327
-1.30156,1.40445,3.322
-1.29234,1.40427,3.322
-1.28274,1.40367,3.321
-1.27469,1.40477,3.324
-1.2651,1.40419,3.323
-1.25704,1.40529,3.326
-1.24671,1.40387,3.323
-1.2379,1.40414,3.324
-1.22945,1.40483,3.326
-1.22247,1.40722,3.332
-1.21218,1.40581,3.329
-1.19613,1.39764,3.31
-1.02646,1.22713,2.907
-1.01776,1.22617,2.905
-1.01011,1.22648,2.906
-1.00143,1.22553,2.904
-0.995494,1.22796,2.91
-0.989532,1.23039,2.916
-0.986233,1.2362,2.93
-0.988202,1.24876,2.96
-0.993651,1.26596,3.001
-0.995924,1.27937,3.033
-0.994117,1.28771,3.053
-0.992526,1.29648,3.074
-0.989542,1.30356,3.091
-0.985833,1.3098,3.106
-0.978269,1.31098,3.109
-0.964453,1.30373,3.092
-0.961554,1.31124,3.11
-0.960705,1.3217,3.135
-0.95881,1.3309,3.157
-0.952283,1.33378,3.164
-0.959511,1.36862,3.247
-0.934828,1.34579,3.193
-0.922045,1.33982,3.179
-0.923131,1.35408,3.213
-0.898991,1.33126,3.159
-0.89685,1.3409,3.182
-0.887328,1.33957,3.179
-0.885564,1.35005,3.204
-0.874087,1.34578,3.194
-0.866459,1.34741,3.198
-0.867394,1.36253,3.234
-0.839463,1.33214,3.162
-0.840829,1.34811,3.2
-0.838869,1.35901,3.226
-0.830594,1.35981,3.228
-0.825619,1.36608,3.243
-0.810741,1.35593,3.219
-0.788774,1.34827,3.201
-0.781278,1.35034,3.206
-0.782189,1.36715,3.246
-0.770019,1.36122,3.232
-0.757456,1.35444,3.216
-0.757086,1.36957,3.252
-0.745018,1.36365,3.238
-0.730071,1.35225,3.211
-0.719764,1.34927,3.204
-0.718152,1.36272,3.236
-0.721628,1.38627,3.292
-0.712028,1.38498,3.289
-0.686412,1.35211,3.211
-0.681904,1.36051,3.231
-0.670204,1.3546,3.217
-0.66475,1.36131,3.233
-0.657181,1.36382,3.239
-0.650981,1.36927,3.252
-0.640762,1.36631,3.245
-0.632724,1.36797,3.249
-0.625817,1.37217,3.259
-0.616774,1.37173,3.258
-0.604191,1.3633,3.238
-0.596131,1.36497,3.242
-0.588231,1.36706,3.247
-0.578876,1.36578,3.244
-0.571296,1.36872,3.251
-0.561301,1.38764,3.296
-0.554864,1.39395,3.311
-0.541916,1.38384,3.287
-0.53445,1.38762,3.296
-0.527414,1.39266,3.308
-0.513261,1.37876,3.275
-0.502521,1.3737,3.263
-0.501529,1.39559,3.315
-0.484209,1.37201,3.259
-0.472006,1.36232,3.236
-0.466514,1.372,3.259
-0.422924,1.34588,3.197
-0.414955,1.37703,3.271
-0.363453,1.38376,3.287
-0.356796,1.3926,3.308
-0.313694,1.4006,3.327
-0.305672,1.40523,3.338
-0.29439,1.39471,3.313
-0.28178,1.37703,3.271
-0.272735,1.37619,3.269
-0.265315,1.38376,3.287
-0.256082,1.38208,3.283
-0.246418,1.37787,3.273
-0.23739,1.37703,3.271
-0.22935,1.38209,3.283
-0.220439,1.38209,3.283
-0.210949,1.3783,3.274
-0.202001,1.37788,3.273
-0.193294,1.37914,3.276
-0.185078,1.3842,3.288
-0.176207,1.38462,3.289
-0.167077,1.38294,3.285
-0.158305,1.3842,3.288
-0.149744,1.38757,3.296
-0.140414,1.38378,3.287
-0.131372,1.38252,3.284
-0.122421,1.3821,3.283
-0.114651,1.396,3.316
-0.105778,1.39768,3.32
-0.0965626,1.39473,3.313
-0.0869887,1.38547,3.291
-0.0778189,1.38127,3.281
-0.0688293,1.37958,3.277
-0.0602638,1.38716,3.295
-0.0514293,1.39011,3.302
-0.0425953,1.39432,3.312
-0.0335649,1.39263,3.308
-0.0245489,1.39053,3.303
-0.0155175,1.38464,3.289
-0.00661224,1.38927,3.3
0.00234779,1.39095,3.304
0.0112884,1.38758,3.296
0.0202163,1.38632,3.293
0.0291191,1.38464,3.289
0.0380348,1.38421,3.288
0.047088,1.388,3.297
0.0564279,1.39769,3.32
0.0651634,1.39179,3.306
0.0743835,1.39642,3.317
0.0835627,1.39937,3.324
0.0925292,1.39852,3.322
0.100874,1.38926,3.3
0.109697,1.38758,3.296
0.117708,1.37663,3.27
0.125925,1.36947,3.253
0.135086,1.37284,3.261
0.146453,1.39683,3.318
0.155084,1.39346,3.31
0.169811,1.36736,3.248
0.176482,1.35094,3.209
0.18271,1.33284,3.166
0.187859,1.30884,3.109
0.194656,1.29789,3.083
0.202826,1.29663,3.08
0.211529,1.29873,3.085
0.219688,1.29747,3.082
0.228497,1.29999,3.088
0.275161,1.41029,3.35
0.285102,1.41449,3.36
0.294572,1.41618,3.364
0.304064,1.41786,3.368
0.313205,1.41786,3.368
0.322346,1.41786,3.368
0.331488,1.41786,3.368
0.340427,1.41702,3.366
0.349667,1.41744,3.367
0.359125,1.4187,3.37
0.36871,1.42038,3.374
0.378091,1.42123,3.376
0.387255,1.42123,3.376
0.396184,1.42039,3.374
0.405222,1.41997,3.373
0.414377,1.41997,3.373
0.423909,1.42123,3.376
0.432945,1.42081,3.375
0.441976,1.42039,3.374
0.451001,1.41998,3.373
0.460293,1.4204,3.374
0.469313,1.41998,3.373
0.478754,1.42083,3.375
0.48806,1.42126,3.376
0.497373,1.42168,3.377
0.506541,1.42169,3.377
0.515557,1.42127,3.376
0.524878,1.4217,3.377
0.533889,1.42129,3.376
0.543055,1.42129,3.376
0.552386,1.42172,3.377
0.56139,1.42131,3.376
0.570726,1.42174,3.377
0.579553,1.42091,3.375
0.589242,1.42218,3.378
0.598594,1.42262,3.379
0.607771,1.42263,3.379
0.615854,1.42012,3.373
0.625016,1.42013,3.373
0.634743,1.42141,3.376
0.64525,1.42437,3.383
0.654634,1.42481,3.384
0.664221,1.42567,3.386
0.673422,1.42569,3.386
0.682824,1.42613,3.387
0.691825,1.42573,3.386
0.701028,1.42575,3.386
0.710441,1.42619,3.387
0.719648,1.42621,3.387
0.728426,1.4254,3.385
0.736976,1.42416,3.382
0.745731,1.42334,3.38
0.755146,1.42379,3.381
0.76502,1.42509,3.384
0.774453,1.42554,3.385
0.783662,1.42557,3.385
0.792872,1.4256,3.385
0.802083,1.42564,3.385
0.810816,1.42483,3.383
0.819782,1.42445,3.382
0.828988,1.42449,3.382
0.839188,1.42621,3.386
0.848408,1.42626,3.386
0.858137,1.42714,3.388
0.86711,1.42677,3.387
0.876338,1.42681,3.387
0.88426,1.42476,3.382
0.893742,1.42523,3.383
0.903764,1.42654,3.386
0.913805,1.42786,3.389
0.922503,1.42707,3.387
0.930916,1.42587,3.384
0.940149,1.42593,3.384
0.949664,1.42641,3.385
0.959753,1.42774,3.388
0.968717,1.42738,3.387
0.977389,1.42661,3.385
0.98751,1.42794,3.388
0.997061,1.42844,3.389
1.00751,1.4302,3.393
1.01589,1.42901,3.39
1.02546,1.42951,3.391
1.03412,1.42875,3.389
1.04401,1.42967,3.391
1.05236,1.42849,3.388
1.06164,1.42858,3.388
1.06965,1.42699,3.384
1.07988,1.42835,3.387
1.08884,1.42802,3.386
1.09975,1.43023,3.391
1.10708,1.4278,3.385
1.11637,1.4279,3.385
1.124,1.4259,3.38
1.13529,1.42854,3.386
1.14425,1.42823,3.385
1.15424,1.42919,3.387
1.16424,1.43016,3.389
1.1739,1.4307,3.39
1.18428,1.43209,3.393
1.19186,1.43011,3.388
1.20083,1.42982,3.387
1.21052,1.43037,3.388
1.22022,1.43093,3.389
1.22993,1.4315,3.39
1.23965,1.43206,3.391
1.2516,1.43517,3.398
1.26172,1.43617,3.4
1.27,1.43505,3.397
1.27713,1.43268,3.391
1.28728,1.43369,3.393
1.29705,1.43428,3.394
1.30723,1.43529,3.396
1.31509,1.43378,3.392
1.3245,1.43395,3.392
1.33352,1.43371,3.391
1.34294,1.4339,3.391
1.35236,1.43409,3.391
1.36219,1.43471,3.392
1.37204,1.43533,3.393
1.3819,1.43595,3.394
1.39012,1.43489,3.391
1.39917,1.43468,3.39
1.41071,1.43701,3.395
1.42061,1.43766,3.396
1.42884,1.43661,3.393
1.43537,1.43388,3.386
1.44613,1.43539,3.389
1.4552,1.4352,3.388
1.46427,1.43502,3.387
1.4716,1.43315,3.382
1.48198,1.43426,3.384
1.49238,1.43536,3.386
1.4988,1.43266,3.379
1.50297,1.42784,3.367
1.50707,1.42302,3.355
1.51338,1.42033,3.348
1.51784,1.41595,3.337
1.5195,1.40902,3.32
1.52245,1.40337,3.306
-2.34718,1.4255,3.249
-2.32365,1.42809,3.263
-2.35505,1.45319,3.323
-2.34166,1.45073,3.32
-2.30375,1.43301,3.282
-2.2941,1.43278,3.284
-2.32201,1.45612,3.34
-2.28247,1.43717,3.299
-2.26322,1.4309,3.287
-2.25848,1.43378,3.296
-2.22985,1.42147,3.27
-2.22858,1.42655,3.284
-2.2205,1.42731,3.288
-2.20571,1.42374,3.282
-2.21373,1.43493,3.31
-2.18434,1.42186,3.282
-2.17702,1.4231,3.287
-2.17101,1.42523,3.294
-2.16763,1.42909,3.305
-2.15115,1.42432,3.296
-2.13151,1.41741,3.282
-2.12492,1.41915,3.288
-2.12476,1.42522,3.304
-2.11556,1.42525,3.306
-2.10447,1.42401,3.305
-2.09089,1.42106,3.3
-2.08241,1.42156,3.303
-2.07581,1.42337,3.309
-2.0636,1.42131,3.306
-2.05081,1.41885,3.302
-2.03807,1.41639,3.298
-2.03091,1.41781,3.303
-2.01764,1.41495,3.298
-2.01172,1.41726,3.305
-2.00034,1.41571,3.303
-1.992,1.41631,3.306
-1.98187,1.41564,3.306
-1.97773,1.41927,3.316
-1.96762,1.41862,3.316
-1.96226,1.4214,3.324
-1.95393,1.42205,3.327
-1.94152,1.41972,3.323
-1.92741,1.41612,3.316
-1.91857,1.41638,3.318
-1.90916,1.41622,3.319
-1.89633,1.41351,3.314
-1.88298,1.41038,3.308
-1.87139,1.40855,3.305
-1.86547,1.41098,3.312
-1.85056,1.40661,3.303
-1.83851,1.40438,3.299
-1.82928,1.40428,3.3
-1.82281,1.40632,3.306
-1.81249,1.40539,3.305
-1.80164,1.40405,3.303
-1.79408,1.40526,3.307
-1.78381,1.40436,3.306
-1.77518,1.40474,3.308
-1.76281,1.40216,3.303
-1.75262,1.40128,3.302
-1.74561,1.40295,3.307
-1.73753,1.40379,3.31
-1.72894,1.4042,3.312
-1.71567,1.40081,3.305
-1.70917,1.40294,3.311
-1.70368,1.40592,3.319
-1.69509,1.40636,3.321
-1.68397,1.4047,3.318
-1.66985,1.4005,3.309
-1.6588,1.39885,3.306
-1.64729,1.39678,3.302
-1.63879,1.39726,3.304
-1.6293,1.3969,3.304
-1.61835,1.39528,3.301
-1.61036,1.3962,3.304
-1.60333,1.39797,3.309
-1.59725,1.40059,3.316
-1.58683,1.39942,3.314
-1.57643,1.39825,3.312
-1.56795,1.39878,3.314
-1.55994,1.39973,3.317
-1.55238,1.40111,3.321
-1.5411,1.39913,3.317
-1.53032,1.39757,3.314
-1.5191,1.39559,3.31
-1.51065,1.39615,3.312
-1.5031,1.39756,3.316
-1.49554,1.39897,3.32
-1.48708,1.39955,3.322
-1.47727,1.39887,3.321
-1.4666,1.39735,3.318
-1.45595,1.39583,3.315
-1.44576,1.39474,3.313
-1.43733,1.39534,3.315
-1.42803,1.39511,3.315
-1.41917,1.39529,3.316
-1.41116,1.39633,3.319
-1.40188,1.39611,3.319
-1.39428,1.39757,3.323
-1.38417,1.39651,3.321
-1.37655,1.39799,3.325
-1.36605,1.39652,3.322
-1.35842,1.398,3.326
-1.34754,1.39612,3.322
-1.33789,1.39551,3.321
-1.32866,1.39532,3.321
-1.32022,1.39598,3.323
-1.3102,1.39496,3.321
-1.29942,1.3931,3.317
-1.28983,1.39251,3.316
-1.28257,1.39444,3.321
-1.27376,1.3947,3.322
-1.26608,1.39621,3.326
-1.25726,1.39648,3.327
-1.24881,1.39716,3.329
-1.23924,1.39659,3.328
-1.23041,1.39686,3.329
-1.22122,1.39672,3.329
-1.21131,1.39574,3.327
-1.19852,1.39141,3.317
-1.17934,1.37953,3.289
-1.03306,1.22705,2.926
-1.02115,1.22233,2.915
-1.01417,1.22348,2.918
-1.0065,1.2238,2.919
-1.00087,1.22663,2.926
-0.993505,1.22737,2.928
-0.988156,1.23063,2.936
-0.987773,1.24017,2.959
-0.992234,1.25601,2.997
-0.993862,1.26849,3.027
-0.995654,1.28139,3.058
-0.995666,1.2922,3.084
-0.994897,1.30217,3.108
-0.990192,1.30711,3.12
-0.983221,1.30912,3.125
-0.978721,1.31449,3.138
-0.970133,1.31441,3.138
-0.967983,1.32313,3.159
-0.955822,1.3301,3.176
-0.957077,1.35634,3.239
-0.932127,1.33325,3.184
-0.936772,1.35244,3.23
-0.924504,1.34736,3.218
-0.918565,1.35148,3.228
-0.902146,1.34012,3.201
-0.890341,1.33546,3.19
-0.883021,1.33749,3.195
-0.884706,1.35335,3.233
-0.879412,1.35874,3.246
-0.864662,1.34948,3.224
-0.864104,1.36241,3.255
-0.856284,1.36403,3.259
-0.846624,1.36273,3.256
-0.834924,1.35808,3.245
-0.826594,1.35888,3.247
-0.819011,1.36093,3.252
-0.80916,1.35922,3.248
-0.797607,1.35458,3.237
-0.792938,1.36166,3.254
-0.784082,1.36162,3.254
-0.773083,1.35782,3.245
-0.765196,1.35946,3.249
-0.757986,1.36236,3.256
-0.748439,1.36108,3.253
-0.739137,1.36021,3.251
-0.726701,1.35349,3.235
-0.726337,1.36936,3.273
-0.722041,1.37812,3.294
-0.713519,1.37894,3.296
-0.701139,1.37222,3.28
-0.690746,1.36927,3.273
-0.679767,1.36507,3.263
-0.669254,1.3617,3.255
-0.661017,1.36294,3.258
-0.654767,1.36836,3.271
-0.643312,1.3629,3.258
-0.634071,1.36205,3.256
-0.627722,1.36747,3.269
-0.619977,1.36997,3.275
-0.610335,1.36828,3.271
-0.599796,1.3645,3.262
-0.591479,1.36575,3.265
-0.586538,1.37494,3.287
-0.579544,1.37953,3.298
-0.570415,1.3791,3.297
-0.557205,1.36864,3.272
-0.552509,1.37908,3.297
-0.548833,1.39246,3.329
-0.533146,1.3753,3.288
-0.526132,1.38032,3.3
-0.519053,1.38533,3.312
-0.509753,1.38449,3.31
-0.480787,1.35353,3.236
-0.457803,1.36356,3.26
-0.426942,1.37819,3.295
-0.370198,1.40035,3.348
-0.323307,1.39408,3.333
-0.309547,1.37317,3.283
-0.303933,1.38823,3.319
-0.291015,1.36983,3.275
-0.281265,1.36564,3.265
-0.276658,1.38698,3.316
-0.265963,1.3782,3.295
-0.257332,1.37987,3.299
-0.247173,1.37318,3.283
-0.23848,1.37444,3.286
-0.229352,1.37318,3.283
-0.220508,1.3736,3.284
-0.211079,1.37026,3.276
-0.202126,1.36984,3.275
-0.193827,1.37403,3.285
-0.185136,1.3757,3.289
-0.175727,1.37194,3.28
-0.166773,1.37152,3.279
-0.157873,1.37153,3.279
-0.149564,1.37697,3.292
-0.140287,1.37362,3.284
-0.131693,1.37697,3.292
-0.123056,1.38032,3.3
-0.114514,1.38534,3.312
-0.105588,1.38618,3.314
-0.0961557,1.3799,3.299
-0.0866197,1.3707,3.277
-0.0778198,1.37238,3.281
-0.0690612,1.3753,3.288
-0.0603925,1.38116,3.302
-0.0518037,1.3912,3.326
-0.0427373,1.38995,3.323
-0.0336465,1.38702,3.316
-0.024512,1.37949,3.298
-0.015546,1.37824,3.295
-0.00662634,1.38326,3.307
0.00234569,1.38075,3.301
0.011244,1.37322,3.283
0.0201859,1.37531,3.288
0.0291106,1.37531,3.288
0.0380816,1.37698,3.292
0.0471028,1.37949,3.298
0.0560717,1.37991,3.299
0.0648685,1.37656,3.291
0.0740255,1.38074,3.301
0.0834882,1.38911,3.321
0.0924467,1.38827,3.319
0.101578,1.38994,3.323
0.109765,1.37948,3.298
0.118249,1.37404,3.285
0.126546,1.36735,3.269
0.136662,1.3799,3.299
0.146102,1.3845,3.31
0.154758,1.38157,3.303
0.163574,1.38031,3.3
0.170074,1.36065,3.253
0.176813,1.34475,3.215
0.182769,1.32467,3.167
0.188223,1.30292,3.115
0.195605,1.29581,3.098
0.204013,1.29581,3.098
0.212696,1.29748,3.102
0.220973,1.29664,3.1
0.230201,1.30124,3.111
0.275738,1.40413,3.357
0.285273,1.40622,3.362
0.294749,1.40789,3.366
0.304065,1.40872,3.368
0.313392,1.40956,3.37
0.322347,1.40872,3.368
0.331489,1.40872,3.368
0.340327,1.40746,3.365
0.349564,1.40788,3.366
0.359019,1.40914,3.369
0.36871,1.41123,3.374
0.377755,1.41081,3.373
0.387025,1.41123,3.374
0.395831,1.40997,3.371
0.40498,1.40997,3.371
0.414007,1.40955,3.37
0.423406,1.41039,3.372
0.432558,1.41039,3.372
0.441318,1.40914,3.369
0.450329,1.40872,3.368
0.459608,1.40914,3.369
0.469171,1.4104,3.372
0.478324,1.4104,3.372
0.487622,1.41082,3.373
0.496632,1.41041,3.372
0.506236,1.41167,3.375
0.515398,1.41167,3.375
0.524406,1.41126,3.374
0.53325,1.41043,3.372
0.542405,1.41044,3.372
0.551887,1.41128,3.374
0.560882,1.41087,3.373
0.570041,1.41088,3.373
0.579544,1.41172,3.375
0.588883,1.41215,3.376
0.598405,1.413,3.378
0.60722,1.41217,3.376
0.616024,1.41135,3.374
0.625003,1.41094,3.373
0.635105,1.41305,3.378
0.645234,1.41515,3.383
0.654038,1.41433,3.381
0.663419,1.41477,3.382
0.672608,1.41478,3.382
0.681999,1.41522,3.383
0.691601,1.41607,3.385
0.7008,1.41609,3.385
0.710419,1.41695,3.387
0.718987,1.41572,3.384
0.727971,1.41532,3.383
0.73695,1.41493,3.382
0.745483,1.4137,3.379
0.754225,1.41289,3.377
0.763634,1.41333,3.378
0.77305,1.41378,3.379
0.78201,1.41339,3.378
0.792136,1.4151,3.382
0.800864,1.41429,3.38
0.809821,1.41391,3.379
0.81829,1.41269,3.376
0.827724,1.41314,3.377
0.837413,1.41402,3.379
0.847113,1.4149,3.381
0.856827,1.41578,3.383
0.866041,1.41582,3.383
0.874997,1.41545,3.382
0.883166,1.41382,3.378
0.892106,1.41345,3.377
0.901577,1.41392,3.378
0.911325,1.4148,3.38
0.921086,1.41569,3.382
0.929483,1.41449,3.379
0.939256,1.41539,3.381
0.94848,1.41545,3.381
0.958557,1.41676,3.384
0.96665,1.41515,3.38
0.974723,1.41354,3.376
0.984817,1.41487,3.379
0.994341,1.41535,3.38
1.00476,1.4171,3.384
1.01311,1.41592,3.381
1.02205,1.41558,3.38
1.03008,1.41398,3.376
1.03931,1.41406,3.376
1.04886,1.41456,3.377
1.05842,1.41507,3.378
1.06767,1.41515,3.378
1.07724,1.41566,3.379
1.08682,1.41617,3.38
1.09705,1.41753,3.383
1.10469,1.41553,3.378
1.11264,1.41395,3.374
1.12057,1.41238,3.37
1.13149,1.41458,3.375
1.14042,1.41427,3.374
1.14969,1.41439,3.374
1.15896,1.4145,3.374
1.16928,1.41588,3.377
1.17857,1.416,3.377
1.18645,1.41444,3.373
1.1968,1.41583,3.376
1.20575,1.41554,3.375
1.21469,1.41526,3.374
1.22326,1.41455,3.372
1.23366,1.41595,3.375
1.24445,1.41778,3.379
1.25304,1.41708,3.377
1.26199,1.41681,3.376
1.27057,1.41613,3.374
1.28142,1.41797,3.378
1.29268,1.42023,3.383
1.30244,1.42081,3.384
1.31026,1.4193,3.38
1.3169,1.41654,3.373
1.32547,1.41587,3.371
1.33483,1.41606,3.371
1.34579,1.41792,3.375
1.35557,1.41853,3.376
1.36618,1.41998,3.379
1.37559,1.42018,3.379
1.38172,1.41702,3.371
1.3907,1.41681,3.37
1.40135,1.41828,3.373
1.41244,1.42018,3.377
1.41977,1.41829,3.372
1.42836,1.41768,3.37
1.43949,1.41959,3.374
1.44937,1.42024,3.375
1.4584,1.42006,3.374
1.46657,1.41904,3.371
1.47472,1.41803,3.368
1.48419,1.41828,3.368
1.49189,1.41685,3.364
1.49868,1.41459,3.358
1.50321,1.41022,3.347
1.50858,1.4067,3.338
1.51392,1.40319,3.329
1.51921,1.39967,3.32
1.52354,1.39532,3.309
-2.35738,1.43942,3.312
-2.34257,1.4361,3.307
-2.31444,1.42456,3.283
-2.29143,1.41609,3.266
-2.28184,1.41588,3.268
-2.29521,1.42997,3.303
-2.27451,1.42286,3.289
-2.26426,1.42226,3.29
-2.22886,1.41161,3.27
-2.23303,1.42012,3.292
-2.22358,1.42002,3.294
-2.20476,1.41389,3.282
-2.19674,1.41468,3.286
-2.19406,1.41892,3.298
-2.18405,1.41844,3.299
-2.18,1.42184,3.309
-2.16543,1.41838,3.303
-2.14832,1.41322,3.293
-2.13196,1.40851,3.284
-2.12667,1.4111,3.292
-2.11943,1.41242,3.297
-2.11091,1.41289,3.3
-2.09412,1.40781,3.29
-2.08503,1.40788,3.292
-2.06398,1.39984,3.275
-2.06627,1.40763,3.295
-2.06846,1.41542,3.315
-2.05628,1.4134,3.312
-2.04105,1.40926,3.304
-2.02958,1.40769,3.302
-2.01449,1.40358,3.294
-2.00738,1.40502,3.299
-1.99481,1.40264,3.295
-1.98772,1.4041,3.3
-1.97942,1.40471,3.303
-1.97589,1.40874,3.314
-1.96698,1.40895,3.316
-1.95927,1.41002,3.32
-1.9492,1.4094,3.32
-1.9339,1.40498,3.311
-1.921,1.40226,3.306
-1.9122,1.40252,3.308
-1.90513,1.40406,3.313
-1.89462,1.40307,3.312
-1.88186,1.40039,3.307
-1.87198,1.39984,3.307
-1.85986,1.39761,3.303
-1.84835,1.39581,3.3
-1.83744,1.39445,3.298
-1.83098,1.39647,3.304
-1.82231,1.39681,3.306
-1.81144,1.39547,3.304
-1.80115,1.39456,3.303
-1.79251,1.39493,3.305
-1.78172,1.39361,3.303
-1.77042,1.39189,3.3
-1.75969,1.39059,3.298
-1.75058,1.39057,3.299
-1.74253,1.39139,3.302
-1.73553,1.39307,3.307
-1.72434,1.39138,3.304
-1.71474,1.39096,3.304
-1.70773,1.39266,3.309
-1.70225,1.39562,3.317
-1.69214,1.39481,3.316
-1.68155,1.39358,3.314
-1.66896,1.39067,3.308
-1.65893,1.38988,3.307
-1.64892,1.38909,3.306
-1.64041,1.38957,3.308
-1.6319,1.39005,3.31
-1.62046,1.38803,3.306
-1.61148,1.38811,3.307
-1.60494,1.39029,3.313
-1.59644,1.3908,3.315
-1.58507,1.3888,3.311
-1.57136,1.3847,3.302
-1.5648,1.38691,3.308
-1.55775,1.3887,3.313
-1.55021,1.39008,3.317
-1.53849,1.38769,3.312
-1.52726,1.38572,3.308
-1.51881,1.38628,3.31
-1.51219,1.38851,3.316
-1.50464,1.38991,3.32
-1.49528,1.38965,3.32
-1.48592,1.38939,3.32
-1.4779,1.39038,3.323
-1.46723,1.38888,3.32
-1.4579,1.38863,3.32
-1.44727,1.38713,3.317
-1.43796,1.3869,3.317
-1.42866,1.38666,3.317
-1.42023,1.38727,3.319
-1.41137,1.38747,3.32
-1.40082,1.38599,3.317
-1.39239,1.38662,3.319
-1.38312,1.38641,3.319
-1.37635,1.38871,3.325
-1.36585,1.38725,3.322
-1.35741,1.38789,3.324
-1.34572,1.3852,3.318
-1.3369,1.38542,3.319
-1.32807,1.38566,3.32
-1.31964,1.38631,3.322
-1.31042,1.38614,3.322
-1.30042,1.38513,3.32
-1.29122,1.38496,3.32
-1.28357,1.38647,3.324
-1.27436,1.3863,3.324
-1.26516,1.38615,3.324
-1.25597,1.38599,3.324
-1.24828,1.38751,3.328
-1.23946,1.38778,3.329
-1.23101,1.38847,3.331
-1.22108,1.3875,3.329
-1.21117,1.38653,3.327
-1.19839,1.38223,3.317
-1.1828,1.3746,3.299
-1.0284,1.22302,2.936
-1.01928,1.22167,2.933
-1.0126,1.22323,2.937
-1.00658,1.22563,2.943
-0.999177,1.22637,2.945
-0.992437,1.22794,2.949
-0.98935,1.23409,2.964
-0.989495,1.24441,2.989
-0.992132,1.25806,3.022
-0.995893,1.27338,3.059
-0.996871,1.28536,3.088
-0.995773,1.29485,3.111
-0.992014,1.30102,3.126
-0.992265,1.31259,3.154
-0.995796,1.32874,3.193
-0.98706,1.32866,3.193
-0.973118,1.32151,3.176
-0.967774,1.32602,3.187
-0.9714,1.34301,3.228
-0.971525,1.35542,3.258
-0.95051,1.3383,3.217
-0.94143,1.33782,3.216
-0.934679,1.34066,3.223
-0.923582,1.33728,3.215
-0.907694,1.32682,3.19
-0.900117,1.32843,3.194
-0.896427,1.33586,3.212
-0.889877,1.33913,3.22
-0.88739,1.34865,3.243
-0.88478,1.35816,3.266
-0.876414,1.35894,3.268
-0.870959,1.3643,3.281
-0.860705,1.36218,3.276
-0.851001,1.36089,3.273
-0.839513,1.35669,3.263
-0.8291,1.35415,3.257
-0.821994,1.35703,3.264
-0.814354,1.35907,3.269
-0.803485,1.3557,3.261
-0.79534,1.35692,3.264
-0.786699,1.3573,3.265
-0.778292,1.3581,3.267
-0.765872,1.35183,3.252
-0.757026,1.3518,3.252
-0.750482,1.35593,3.262
-0.742293,1.35715,3.265
-0.732965,1.3563,3.263
-0.725203,1.35835,3.268
-0.716538,1.35874,3.269
-0.711548,1.3662,3.287
-0.702613,1.36618,3.287
-0.697479,1.37364,3.305
-0.685164,1.36697,3.289
-0.675815,1.36613,3.287
-0.664855,1.36195,3.277
-0.655351,1.36069,3.274
-0.643889,1.35527,3.261
-0.630941,1.34653,3.24
-0.629628,1.36272,3.279
-0.623183,1.36811,3.292
-0.613682,1.36686,3.289
-0.602726,1.36227,3.278
-0.595273,1.36559,3.286
-0.586171,1.36516,3.285
-0.584455,1.38219,3.326
-0.572136,1.37429,3.307
-0.562305,1.3722,3.302
-0.557362,1.38217,3.326
-0.55031,1.38715,3.338
-0.533302,1.36678,3.289
-0.523894,1.36553,3.286
-0.521555,1.38298,3.328
-0.511905,1.38131,3.324
-0.503637,1.38338,3.329
-0.491035,1.37341,3.305
-0.427589,1.37132,3.3
-0.308417,1.35928,3.271
-0.29235,1.36718,3.29
-0.282214,1.36136,3.276
-0.275158,1.37051,3.298
-0.266449,1.37176,3.301
-0.257568,1.37217,3.302
-0.248079,1.36927,3.295
-0.238845,1.36761,3.291
-0.229843,1.3672,3.29
-0.221316,1.36969,3.296
-0.212757,1.37219,3.302
-0.203239,1.36845,3.293
-0.194006,1.36637,3.288
-0.185532,1.3697,3.296
-0.176318,1.36762,3.291
-0.166979,1.3643,3.283
-0.158453,1.36763,3.291
-0.14952,1.36763,3.291
-0.14063,1.36805,3.292
-0.131895,1.37013,3.297
-0.123282,1.37387,3.306
-0.114343,1.37429,3.307
-0.105112,1.37096,3.299
-0.0956614,1.3639,3.282
-0.0868323,1.36515,3.285
-0.0782715,1.37138,3.3
-0.0692722,1.37055,3.298
-0.0604666,1.37388,3.306
-0.0518979,1.38469,3.332
-0.0426993,1.3797,3.32
-0.0332208,1.36058,3.274
-0.0244158,1.36516,3.285
-0.0155179,1.36682,3.289
-0.00661241,1.37139,3.3
0.00234501,1.37139,3.3
0.0112682,1.36723,3.29
0.0202783,1.37264,3.303
0.0292881,1.37471,3.308
0.0383135,1.37638,3.312
0.0471892,1.37305,3.304
0.0560045,1.36931,3.295
0.0647314,1.36474,3.284
0.0739817,1.37097,3.299
0.0833386,1.37762,3.315
0.0922809,1.37678,3.313
0.100784,1.37013,3.297
0.1097,1.36972,3.296
0.119006,1.37387,3.306
0.127903,1.37304,3.304
0.136829,1.37262,3.303
0.146147,1.37594,3.311
0.155275,1.37719,3.314
0.163774,1.37303,3.304
0.170546,1.35557,3.262
0.177695,1.34269,3.231
0.183464,1.32108,3.179
0.18889,1.29905,3.126
0.196491,1.29323,3.112
0.205135,1.29448,3.115
0.213932,1.29655,3.12
0.222614,1.2978,3.123
0.231979,1.30278,3.135
0.265358,1.38838,3.341
0.275822,1.39544,3.358
0.28536,1.39752,3.363
0.294663,1.39835,3.365
0.304157,1.40001,3.369
0.313394,1.40042,3.37
0.322349,1.39959,3.368
0.331589,1.4,3.369
0.340631,1.39958,3.368
0.350188,1.40124,3.372
0.359233,1.40083,3.371
0.368711,1.40207,3.374
0.377756,1.40165,3.373
0.386911,1.40165,3.373
0.395596,1.39999,3.369
0.40474,1.39999,3.369
0.413884,1.39999,3.369
0.42328,1.40082,3.371
0.432429,1.40082,3.371
0.441186,1.39958,3.368
0.450328,1.39958,3.368
0.459606,1.39999,3.369
0.469168,1.40124,3.372
0.47818,1.40083,3.371
0.48733,1.40083,3.371
0.496628,1.40125,3.372
0.506082,1.40208,3.374
0.515241,1.40209,3.374
0.523934,1.40084,3.371
0.533086,1.40085,3.371
0.542399,1.40127,3.372
0.551717,1.40169,3.373
0.560709,1.40128,3.372
0.570202,1.40212,3.374
0.579878,1.40337,3.377
0.589397,1.40421,3.379
0.598218,1.40339,3.377
0.606849,1.40215,3.374
0.615647,1.40133,3.372
0.624805,1.40134,3.372
0.634715,1.40302,3.376
0.644267,1.40386,3.378
0.653056,1.40304,3.376
0.662227,1.40306,3.376
0.671597,1.40349,3.377
0.680974,1.40392,3.378
0.690561,1.40477,3.38
0.699952,1.4052,3.381
0.70914,1.40522,3.381
0.717479,1.40358,3.377
0.726873,1.40402,3.378
0.735837,1.40362,3.377
0.744355,1.4024,3.374
0.752859,1.40118,3.371
0.762251,1.40162,3.372
0.771649,1.40206,3.373
0.78036,1.40126,3.371
0.789763,1.4017,3.372
0.798699,1.40132,3.371
0.80787,1.40135,3.371
0.816316,1.40014,3.368
0.825236,1.39976,3.367
0.834648,1.40021,3.368
0.843566,1.39983,3.367
0.852733,1.39987,3.367
0.861646,1.39949,3.366
0.87159,1.40078,3.369
0.881028,1.40124,3.37
0.890474,1.4017,3.371
0.898592,1.40009,3.367
0.90723,1.39931,3.365
0.916947,1.40019,3.367
0.925853,1.39983,3.366
0.934754,1.39946,3.365
0.944214,1.39994,3.366
0.954247,1.40124,3.369
0.963155,1.40089,3.368
0.970905,1.39887,3.363
0.98067,1.39977,3.365
0.98986,1.39983,3.365
0.999942,1.40115,3.368
1.00825,1.39997,3.365
1.01623,1.39838,3.361
1.0239,1.39638,3.356
1.03307,1.39645,3.356
1.04319,1.39778,3.359
1.05332,1.39911,3.362
1.06221,1.39878,3.361
1.07141,1.39887,3.361
1.08158,1.4002,3.364
1.09112,1.40071,3.365
1.09936,1.39956,3.362
1.10726,1.39799,3.358
1.11647,1.39809,3.358
1.12703,1.39986,3.362
1.13592,1.39955,3.361
1.14549,1.40007,3.362
1.1537,1.39894,3.359
1.16293,1.39905,3.359
1.17182,1.39875,3.358
1.18141,1.39929,3.359
1.19171,1.40066,3.362
1.20097,1.40079,3.362
1.20987,1.4005,3.361
1.21914,1.40063,3.361
1.22804,1.40035,3.36
1.23841,1.40174,3.363
1.24695,1.40105,3.361
1.25698,1.40203,3.363
1.26515,1.40093,3.36
1.27634,1.40317,3.365
1.28564,1.40333,3.365
1.29573,1.40432,3.367
1.3035,1.40282,3.363
1.31126,1.40132,3.359
1.3194,1.40024,3.356
1.32832,1.4,3.355
1.33963,1.40227,3.36
1.35017,1.4037,3.363
1.36113,1.40556,3.367
1.37091,1.40617,3.368
1.37906,1.40512,3.365
1.38844,1.40532,3.365
1.39865,1.40636,3.367
1.4093,1.40782,3.37
1.41745,1.40678,3.367
1.42474,1.40491,3.362
1.43372,1.40472,3.361
1.44442,1.4062,3.364
1.45514,1.40769,3.367
1.46545,1.40876,3.369
1.47403,1.40817,3.367
1.48173,1.40674,3.363
1.48941,1.40532,3.359
1.49619,1.40307,3.353
1.50294,1.40082,3.347
1.50786,1.3969,3.337
